ply
format ascii 1.0
element vertex 1268
property float x
property float y
property float z
property int segment_id
end_header
85105.07 446806.160004 16.530001 215
85104.83 446805.970001 16.48 215
85104.56 446805.769997 16.349999999999998 215
85104.32 446805.580002 16.25 228
85104.08 446805.410004 15.93 207
85103.84 446805.239998 15.78 207
85103.95 446805.410004 14.129999999999999 211
85103.61 446805.309998 11.059999999999999 229
85103.55 446805.43 8.0 217
85103.5 446805.57 4.67 168
85103.53 446805.629997 4.12 168
85103.67 446805.849998 2.04 175
85120.66 446818.470001 20.469998999999998 212
85120.41 446818.279999 20.389999 212
85120.16 446818.080002 20.290001 212
85119.91 446817.900002 20.18 212
85119.67 446817.720001 20.08 212
85119.43 446817.529999 19.98 212
85119.17 446817.330002 19.860001 212
85118.889999 446817.120003 19.790001 220
85118.66 446816.940002 19.66 220
85118.389999 446816.739998 19.559998999999998 220
85118.15 446816.550003 19.5 220
85117.9 446816.370003 19.4 220
85117.66 446816.18 19.33 220
85117.4 446815.980003 19.18 220
85117.129999 446815.779999 19.120001 220
85116.879999 446815.589996 19.009999999999998 209
85116.629999 446815.400002 18.879998999999998 209
85116.370001 446815.199997 18.809998999999998 209
85116.139999 446815.019997 18.74 209
85115.89 446814.830002 18.610001 209
85115.63 446814.639999 18.530001 209
85115.36 446814.419998 18.459999 209
85115.11 446814.239998 18.349999999999998 223
85114.85 446814.040001 18.24 223
85114.61 446813.849998 18.15 223
85114.36 446813.660004 18.07 214
85114.12 446813.480003 17.969998999999998 214
85113.85 446813.279999 17.879998999999998 214
85113.59 446813.080002 17.75 214
85113.34 446812.889999 17.66 214
85113.08 446812.690002 17.530001 210
85112.78 446812.43 18.0 224
85112.48 446812.169998 18.59 182
85112.2 446811.93 18.91 225
85111.94 446811.730003 18.799999 203
85111.67 446811.529999 18.700001 203
85111.43 446811.339996 18.639999 203
85111.16 446811.129997 18.540001 203
85110.91 446810.940002 18.5 203
85110.66 446810.760002 18.370001 226
85110.43 446810.580002 18.25 226
85110.16 446810.370003 18.190001 226
85109.9 446810.169998 18.08 221
85109.65 446809.980003 17.99 221
85109.39 446809.790001 17.870001 221
85109.14 446809.589996 17.759999999999998 221
85108.9 446809.410004 17.669999999999998 221
85108.64 446809.220001 17.59 221
85108.39 446809.029999 17.43 221
85108.12 446808.82 17.389999 221
85107.88 446808.639999 17.280001 221
85107.61 446808.43 17.169999999999998 221
85107.37 446808.25 17.09 221
85107.11 446808.050003 17.0 227
85106.87 446807.870003 16.93 227
85106.6 446807.660004 16.809998999999998 227
85106.34 446807.470001 16.68 215
85106.1 446807.279999 16.620001 215
85105.84 446807.080002 16.469998999999998 215
85105.58 446806.889999 16.4 215
85105.34 446806.699997 16.299999 215
85105.09 446806.510002 16.200001 215
85104.83 446806.309998 16.139999 215
85104.56 446806.110001 15.95 215
85104.32 446805.93 15.889999999999999 215
85104.05 446805.720001 15.77 228
85103.81 446805.540001 15.7 228
85103.66 446805.519997 14.01 211
85120.16 446818.5 19.91 230
85119.92 446818.309998 19.849999999999998 230
85119.66 446818.120003 19.65 230
85119.41 446817.93 19.599999999999998 230
85119.17 446817.739998 19.49 220
85118.93 446817.559998 19.379998999999998 220
85118.66 446817.360001 19.299999 220
85118.41 446817.160004 19.200001 220
85118.15 446816.959999 19.139999 220
85117.889999 446816.769997 19.030001 220
85117.639999 446816.580002 18.91 220
85117.4 446816.400002 18.82 220
85117.16 446816.209999 18.709999 220
85116.9 446816.010002 18.610001 220
85116.629999 446815.800003 18.559998999999998 231
85116.389999 446815.620003 18.41 223
85116.120001 446815.410004 18.34 223
85115.87 446815.230003 18.24 223
85115.63 446815.050003 18.09 223
85115.39 446814.860001 18.059998999999998 223
85115.12 446814.660004 17.93 223
85114.86 446814.449997 17.870001 223
85114.61 446814.260002 17.790001 223
85114.35 446814.07 17.66 223
85114.1 446813.879997 17.58 223
85113.85 446813.690002 17.49 210
85113.61 446813.5 17.389999 210
85113.35 446813.300003 17.290001 210
85113.08 446813.099998 17.169999999999998 210
85112.8 446812.860001 17.549999 224
85112.47 446812.57 18.18 224
85112.18 446812.32 18.540001 225
85111.94 446812.139999 18.450001 232
85111.68 446811.949997 18.349999999999998 226
85111.43 446811.75 18.25 226
85111.16 446811.540001 18.15 226
85110.92 446811.360001 18.040001 226
85110.65 446811.160004 17.959999 226
85110.41 446810.970001 17.9 226
85110.16 446810.779999 17.780001 226
85109.92 446810.599998 17.66 226
85109.65 446810.389999 17.58 221
85109.39 446810.199997 17.43 221
85109.14 446810.010002 17.349999999999998 221
85108.88 446809.809998 17.25 221
85108.63 446809.620003 17.18 221
85108.39 446809.43 17.099999999999998 221
85108.14 446809.239998 16.99 221
85107.87 446809.040001 16.91 221
85107.6 446808.839996 16.790001 221
85107.36 446808.650002 16.74 227
85107.09 446808.440002 16.66 227
85106.86 446808.269997 16.52 227
85106.6 446808.080002 16.419999999999998 227
85106.36 446807.889999 16.309998999999998 227
85106.09 446807.690002 16.18 227
85105.83 446807.489998 16.059998999999998 227
85105.58 446807.300003 15.989999999999998 215
85105.32 446807.099998 15.86 215
85105.07 446806.910004 15.729999999999999 215
85104.83 446806.730003 15.709999999999999 215
85104.57 446806.519997 15.739999999999998 215
85104.3 446806.300003 15.78 215
85104.02 446806.089996 15.77 215
85119.620001 446818.519997 19.34 230
85119.389999 446818.339996 19.23 230
85119.120001 446818.129997 19.09 230
85118.879999 446817.949997 19.040001 220
85118.629999 446817.760002 18.93 220
85118.389999 446817.580002 18.809998999999998 220
85118.120001 446817.379997 18.709999 220
85117.860001 446817.169998 18.639999 220
85117.610001 446816.980003 18.530001 220
85117.35 446816.790001 18.419999999999998 220
85117.1 446816.599998 18.299999 220
85116.860001 446816.419998 18.23 220
85116.610001 446816.220001 18.15 231
85116.360001 446816.029999 18.0 231
85116.09 446815.830002 17.919999999999998 231
85115.85 446815.639999 17.83 223
85115.58 446815.440002 17.719998999999998 223
85115.34 446815.260002 17.610001 223
85115.08 446815.059998 17.58 223
85114.84 446814.879997 17.48 223
85114.57 446814.669998 17.370001 223
85114.32 446814.480003 17.24 223
85114.06 446814.279999 17.18 210
85113.8 446814.080002 17.08 210
85113.55 446813.889999 16.99 210
85113.31 446813.709999 16.879998999999998 210
85113.06 446813.519997 16.780001 210
85112.76 446813.269997 17.110001 224
85112.42 446812.959999 17.809998999999998 224
85112.15 446812.730003 18.139999 225
85111.88 446812.519997 18.009999999999998 232
85111.64 446812.339996 17.919999999999998 232
85111.38 446812.150002 17.84 226
85111.15 446811.970001 17.73 226
85110.87 446811.760002 17.669999999999998 226
85110.61 446811.559998 17.599999999999998 226
85110.36 446811.370003 17.5 226
85110.1 446811.169998 17.379998999999998 226
85109.85 446810.980003 17.27 226
85109.61 446810.790001 17.219998999999998 226
85109.36 446810.610001 17.08 226
85109.1 446810.410004 16.98 221
85108.83 446810.209999 16.860001 221
85108.59 446810.019997 16.790001 221
85108.32 446809.82 16.68 221
85108.08 446809.629997 16.610001 221
85107.83 446809.440002 16.48 233
85107.59 446809.260002 16.4 227
85107.31 446809.050003 16.299999 227
85107.05 446808.849998 16.23 227
85106.81 446808.660004 16.09 227
85106.55 446808.470001 15.989999999999998 227
85106.3 446808.279999 15.84 227
85106.06 446808.099998 15.739999999999998 227
85105.8 446807.900002 15.7 227
85105.53 446807.68 15.739999999999998 234
85105.25 446807.459999 15.78 234
85118.860001 446818.360001 18.610001 230
85118.59 446818.160004 18.5 230
85118.35 446817.970001 18.440001 230
85118.09 446817.779999 18.360001 230
85117.860001 446817.599998 18.209999 231
85117.59 446817.389999 18.129998999999998 231
85117.33 446817.199997 18.009999999999998 231
85117.08 446817.010002 17.91 231
85116.82 446816.809998 17.84 231
85116.57 446816.620003 17.75 231
85116.33 446816.440002 17.639999 231
85116.08 446816.25 17.5 231
85115.82 446816.050003 17.419999999999998 231
85115.55 446815.849998 17.32 231
85115.32 446815.669998 17.219998999999998 231
85115.04 446815.449997 17.16 223
85114.8 446815.269997 17.040001 223
85114.54 446815.07 16.99 223
85114.31 446814.900002 16.870001 210
85114.03 446814.690002 16.799999 210
85113.78 446814.489998 16.690001 210
85113.53 446814.300003 16.59 210
85113.27 446814.099998 16.49 210
85113.01 446813.910004 16.370001 210
85112.74 446813.68 16.709999 224
85112.42 446813.400002 17.290001 224
85112.11 446813.129997 17.74 225
85111.85 446812.93 17.620001 225
85111.61 446812.75 17.52 225
85111.34 446812.540001 17.459999 232
85111.1 446812.360001 17.299999 232
85110.85 446812.169998 17.23 232
85110.6 446811.980003 17.200001 226
85110.33 446811.769997 17.059998999999998 226
85110.07 446811.580002 16.959999 226
85109.82 446811.389999 16.879998999999998 226
85109.56 446811.190002 16.780001 226
85109.31 446811.0 16.68 233
85109.07 446810.82 16.559998999999998 233
85108.82 446810.629997 16.440001 233
85108.56 446810.419998 16.379998999999998 233
85108.29 446810.220001 16.299999 233
85108.05 446810.040001 16.16 233
85107.78 446809.830002 16.099999999999998 233
85107.54 446809.650002 15.95 233
85107.3 446809.480003 15.739999999999998 233
85107.05 446809.279999 15.709999999999999 227
85106.77 446809.07 15.7 227
85106.5 446808.849998 15.75 227
85106.24 446808.639999 15.77 227
85118.33 446818.370003 18.030001 230
85118.07 446818.169998 17.919999999999998 230
85117.82 446817.989998 17.83 231
85117.58 446817.800003 17.75 231
85117.34 446817.620003 17.65 231
85117.07 446817.410004 17.540001 231
85116.809999 446817.220001 17.43 231
85116.549999 446817.019997 17.33 231
85116.299999 446816.830002 17.190001 231
85116.049999 446816.639999 17.099999999999998 231
85115.81 446816.449997 17.02 231
85115.56 446816.260002 16.959999 231
85115.3 446816.07 16.799999 231
85115.03 446815.860001 16.75 231
85114.79 446815.68 16.629998999999998 235
85114.51 446815.470001 16.549999 235
85114.27 446815.279999 16.459999 235
85114.01 446815.080002 16.419999999999998 210
85113.78 446814.910004 16.299999 210
85113.51 446814.699997 16.200001 210
85113.25 446814.5 16.099999999999998 210
85113.0 446814.309998 16.02 210
85112.7 446814.059998 16.349999999999998 224
85112.38 446813.779999 16.93 224
85112.1 446813.529999 17.34 225
85111.84 446813.339996 17.25 225
85111.58 446813.139999 17.169999999999998 225
85111.32 446812.940002 17.040001 225
85111.08 446812.760002 16.950001 225
85110.81 446812.550003 16.84 232
85110.56 446812.360001 16.77 232
85110.32 446812.18 16.629998999999998 232
85110.07 446811.980003 16.620001 232
85109.8 446811.779999 16.48 232
85109.54 446811.580002 16.41 232
85109.29 446811.400002 16.290001 233
85109.03 446811.199997 16.15 233
85108.78 446811.0 16.110001 233
85108.54 446810.82 15.969999999999999 233
85108.29 446810.639999 15.809999999999999 233
85108.03 446810.440002 15.69 233
85107.75 446810.220001 15.7 233
85107.51 446810.029999 15.739999999999998 233
85107.22 446809.809998 15.77 233
85117.790001 446818.449997 17.360001 236
85117.52 446818.239998 17.259999999999998 236
85117.280001 446818.059998 17.190001 236
85117.030001 446817.870003 17.099999999999998 231
85116.790001 446817.690002 17.0 231
85116.52 446817.480003 16.860001 231
85116.26 446817.279999 16.84 231
85116.01 446817.089996 16.669999999999998 231
85115.74 446816.889999 16.599999999999998 231
85115.5 446816.699997 16.49 231
85115.26 446816.519997 16.379998999999998 235
85115.01 446816.330002 16.299999 235
85114.75 446816.129997 16.18 235
85114.48 446815.919998 16.09 235
85114.23 446815.739998 16.0 235
85113.97 446815.540001 15.84 235
85113.73 446815.360001 15.7 235
85113.47 446815.160004 15.709999999999999 235
85113.22 446814.959999 15.76 210
85112.93 446814.739998 15.78 224
85113.1 446814.959999 13.979999999999999 237
85112.66 446814.519997 15.83 224
85112.34 446814.239998 16.450001 224
85112.03 446813.970001 16.9 225
85111.78 446813.779999 16.809998999999998 225
85111.54 446813.589996 16.709999 225
85111.29 446813.400002 16.629998999999998 225
85111.03 446813.199997 16.52 225
85110.76 446813.0 16.43 225
85110.52 446812.82 16.309998999999998 232
85110.25 446812.610001 16.219998999999998 232
85110.01 446812.43 16.139999 232
85109.75 446812.230003 16.030001 232
85109.52 446812.059998 15.86 238
85109.25 446811.860001 15.7 238
85108.99 446811.650002 15.7 233
85108.73 446811.440002 15.729999999999999 233
85108.45 446811.230003 15.78 233
85108.19 446811.029999 15.78 233
85117.23 446818.489998 16.709999 236
85116.969999 446818.290001 16.610001 236
85116.719999 446818.099998 16.52 236
85116.469999 446817.910004 16.48 236
85116.23 446817.730003 16.32 236
85115.97 446817.529999 16.209999 235
85115.7 446817.330002 16.09 235
85115.45 446817.139999 16.040001 235
85115.19 446816.940002 15.87 235
85114.95 446816.760002 15.719999999999999 235
85114.69 446816.559998 15.7 235
85114.44 446816.370003 15.719999999999999 235
85114.16 446816.139999 15.77 235
85113.89 446815.93 15.78 235
85112.58 446814.910004 15.78 224
85112.29 446814.660004 16.049999 224
85111.97 446814.389999 16.459999 225
85111.73 446814.209999 16.360001 225
85111.47 446814.010002 16.24 225
85111.22 446813.82 16.16 225
85110.97 446813.629997 16.040001 225
85110.73 446813.449997 15.979999999999999 225
85110.47 446813.25 15.75 238
85110.2 446813.050003 15.709999999999999 232
85109.94 446812.839996 15.729999999999999 238
85109.67 446812.629997 15.77 238
85109.82 446812.839996 13.99 239
85109.41 446812.43 15.729999999999999 238
85109.56 446812.639999 13.959999999999999 239
85116.690001 446818.510002 16.129998999999998 236
85116.43 446818.309998 16.040001 236
85116.18 446818.129997 15.85 236
85115.95 446817.949997 15.7 236
85115.68 446817.739998 15.709999999999999 236
85115.41 446817.529999 15.739999999999998 235
85115.13 446817.309998 15.77 235
85112.25 446815.050003 15.76 224
85111.96 446814.809998 16.059998999999998 240
85111.7 446814.610001 15.94 225
85111.44 446814.419998 15.709999999999999 225
85111.19 446814.230003 15.709999999999999 225
85110.91 446814.010002 15.729999999999999 225
85110.66 446813.809998 15.78 225
85110.81 446814.029999 14.01 239
85110.4 446813.599998 15.79 225
85116.18 446818.449997 15.76 236
85115.91 446818.230003 15.79 236
85111.96 446815.150002 15.709999999999999 225
85111.7 446814.949997 15.77 225
85111.45 446814.75 15.77 225
85111.61 446814.970001 13.99 241
85111.34 446814.760002 13.95 241
85128.43 446812.830002 13.979999999999999 82
85126.65 446803.160004 1.02 242
85126.73 446802.970001 2.7199999999999998 242
85126.639999 446802.879997 1.44 242
85126.83 446802.760002 4.74 243
85126.85 446802.489998 5.64 244
85126.75 446802.370003 4.08 243
85126.620001 446802.230003 2.1 242
85128.459999 446815.639999 18.030001 101
85128.41 446815.309998 17.799999 101
85128.370001 446815.0 17.599999999999998 101
85128.32 446814.669998 17.299999 101
85128.26 446814.32 17.049999 101
85128.209999 446813.980003 16.82 101
85128.17 446813.660004 16.57 83
85128.110001 446813.309998 16.32 83
85128.059999 446812.989998 16.040001 83
85128.01 446812.650002 15.7 83
85127.98 446812.349998 15.77 83
85127.870001 446812.260002 13.979999999999999 82
85126.290001 446803.370003 3.25 242
85126.48 446803.300003 6.56 243
85126.6 446803.139999 8.84 243
85126.690001 446802.959999 10.559999999999999 245
85126.879999 446802.860001 13.979999999999999 22
85126.84 446802.519997 13.969999999999999 246
85128.440001 446818.389999 20.629998999999998 151
85128.379999 446818.040001 20.379998999999998 121
85128.34 446817.739998 20.16 121
85128.280001 446817.379997 19.84 121
85128.23 446817.080002 19.559998999999998 121
85128.190001 446816.75 19.4 121
85128.139999 446816.440002 19.129998999999998 121
85128.09 446816.089996 18.849999999999998 101
85128.040001 446815.75 18.59 101
85127.99 446815.419998 18.379998999999998 101
85127.940001 446815.089996 18.139999 101
85127.889999 446814.760002 17.860001 101
85127.84 446814.449997 17.610001 101
85127.790001 446814.120003 17.4 101
85127.74 446813.779999 17.099999999999998 101
85127.690001 446813.419998 16.849999999999998 83
85127.639999 446813.110001 16.65 83
85127.59 446812.75 16.34 83
85127.540001 446812.440002 16.110001 83
85127.48 446812.099998 15.719999999999999 83
85127.450001 446811.800003 15.76 83
85125.790001 446803.75 2.09 242
85125.879999 446803.529999 4.01 243
85126.1 446803.480003 7.72 244
85126.0 446803.379997 6.31 244
85126.27 446803.339996 10.729999999999999 243
85126.450001 446803.269997 13.969999999999999 24
85126.42 446802.949997 13.979999999999999 24
85126.5 446802.769997 15.7 23
85126.469999 446802.43 15.75 23
85126.35 446802.300003 13.979999999999999 24
85126.32 446801.970001 13.969999999999999 24
85128.1 446818.489998 21.07 151
85128.049999 446818.169998 20.799999 151
85128.0 446817.839996 20.559998999999998 151
85127.950001 446817.489998 20.280001 121
85127.9 446817.18 20.040001 121
85127.85 446816.830002 19.809998999999998 121
85127.799999 446816.510002 19.559998999999998 121
85127.75 446816.190002 19.299999 121
85127.709999 446815.879997 19.07 121
85127.66 446815.529999 18.82 101
85127.6 446815.190002 18.530001 101
85127.559999 446814.870003 18.309998999999998 101
85127.51 446814.529999 18.110001 101
85127.459999 446814.190002 17.82 101
85127.41 446813.879997 17.559998999999998 101
85127.360001 446813.550003 17.309998999999998 101
85127.309999 446813.220001 17.09 83
85127.26 446812.860001 16.790001 83
85127.209999 446812.550003 16.549999 83
85127.16 446812.190002 16.280001 83
85127.110001 446811.870003 16.07 83
85127.049999 446811.529999 15.7 83
85127.02 446811.230003 15.76 83
85125.4 446803.510002 2.21 242
85125.77 446803.589996 8.18 244
85126.09 446803.349998 13.979999999999999 24
85126.17 446803.139999 15.75 27
85126.16 446802.860001 16.030001 27
85126.139999 446802.550003 16.129998999999998 23
85126.08 446802.209999 15.7 19
85126.040001 446801.860001 15.77 19
85125.92 446801.720001 13.969999999999999 247
85127.74 446818.25 21.24 151
85127.690001 446817.940002 21.030001 151
85127.639999 446817.620003 20.77 151
85127.59 446817.290001 20.49 121
85127.540001 446816.940002 20.24 121
85127.49 446816.620003 19.99 121
85127.440001 446816.269997 19.759999999999998 121
85127.389999 446815.959999 19.52 121
85127.34 446815.629997 19.259999999999998 121
85127.299999 446815.32 19.02 107
85127.25 446814.980003 18.809998999999998 107
85127.190001 446814.639999 18.48 101
85127.15 446814.309998 18.27 101
85127.09 446813.970001 17.98 101
85127.040001 446813.639999 17.709999 101
85127.0 446813.32 17.52 101
85126.950001 446813.0 17.280001 83
85126.9 446812.660004 17.030001 83
85126.85 446812.300003 16.759999999999998 83
85126.790001 446811.989998 16.469998999999998 83
85126.74 446811.629997 16.190001 83
85126.690001 446811.309998 15.93 73
85126.639999 446810.970001 15.7 73
85126.610001 446810.669998 15.76 73
85125.120001 446804.239998 2.09 242
85125.09 446803.910004 2.1999999999999997 242
85125.459999 446804.0 8.15 244
85125.370001 446803.900002 6.81 244
85125.43 446803.68 8.15 244
85125.780001 446803.769997 13.979999999999999 24
85125.870001 446803.57 15.739999999999998 27
85125.75 446803.440002 14.04 24
85125.83 446803.220001 15.729999999999999 27
85125.83 446802.959999 16.219998999999998 27
85125.82 446802.629997 16.5 23
85125.77 446802.32 16.27 23
85125.719999 446801.970001 16.0 19
85125.67 446801.639999 15.69 19
85125.629999 446801.300003 15.76 19
85125.51 446801.160004 13.969999999999999 14
85127.459999 446818.330002 21.59 151
85127.41 446818.0 21.34 151
85127.360001 446817.669998 21.08 151
85127.309999 446817.360001 20.849999999999998 151
85127.27 446817.040001 20.610001 151
85127.209999 446816.699997 20.349999999999998 121
85127.16 446816.349998 20.059998999999998 121
85127.110001 446816.040001 19.790001 121
85127.059999 446815.690002 19.58 121
85127.02 446815.379997 19.349999999999998 121
85126.969999 446815.050003 19.110001 107
85126.92 446814.739998 18.870001 107
85126.870001 446814.379997 18.57 101
85126.82 446814.050003 18.370001 101
85126.77 446813.720001 18.09 101
85126.719999 446813.379997 17.83 92
85126.67 446813.050003 17.599999999999998 92
85126.620001 446812.739998 17.34 92
85126.57 446812.410004 17.110001 83
85126.52 446812.07 16.84 83
85126.459999 446811.709999 16.549999 83
85126.42 446811.389999 16.34 83
85126.360001 446811.040001 16.049999 73
85126.309999 446810.709999 15.7 73
85126.280001 446810.400002 15.76 73
85124.809999 446804.599998 1.27 242
85124.83 446804.309998 2.17 243
85125.08 446804.260002 6.42 244
85124.799999 446803.970001 2.19 242
85125.16 446804.059998 8.16 243
85125.48 446803.809998 13.979999999999999 24
85125.57 446803.639999 15.75 27
85125.559999 446803.339996 16.030001 27
85125.540001 446803.029999 16.370001 27
85125.530001 446802.720001 16.74 28
85125.5 446802.400002 16.629998999999998 19
85125.440001 446802.040001 16.34 19
85125.389999 446801.709999 16.08 19
85125.33 446801.370003 15.709999999999999 19
85125.299999 446801.07 15.75 19
85125.18 446800.93 13.969999999999999 14
85127.190001 446818.389999 21.530001 248
85127.16 446818.07 21.610001 159
85127.120001 446817.75 21.459999 151
85127.059999 446817.419998 21.169999999999998 151
85127.02 446817.089996 20.950001 151
85126.969999 446816.779999 20.700001 151
85126.92 446816.449997 20.389999 121
85126.870001 446816.120003 20.209999 121
85126.82 446815.769997 19.98 121
85126.77 446815.459999 19.68 121
85126.719999 446815.110001 19.41 107
85126.67 446814.800003 19.219998999999998 107
85126.620001 446814.470001 18.959999 107
85126.58 446814.150002 18.75 107
85126.52 446813.800003 18.419999999999998 107
85126.469999 446813.459999 18.24 107
85126.42 446813.139999 17.950001 92
85126.370001 446812.800003 17.700001 92
85126.32 446812.470001 17.459999 92
85126.280001 446812.150002 17.219998999999998 92
85126.219999 446811.809998 16.91 83
85126.17 446811.480003 16.68 83
85126.120001 446811.120003 16.41 73
85126.07 446810.800003 16.169999999999998 73
85126.01 446810.440002 15.799999999999999 73
85125.98 446810.129997 15.729999999999999 73
85124.57 446804.379997 2.1999999999999997 243
85124.93 446804.480003 8.15 243
85124.84 446804.379997 6.72 244
85124.9 446804.129997 8.19 243
85125.25 446804.199997 13.979999999999999 249
85125.33 446804.0 15.739999999999998 27
85125.219999 446803.879997 14.04 249
85125.299999 446803.669998 15.729999999999999 27
85125.299999 446803.389999 16.23 27
85125.290001 446803.110001 16.509999999999998 27
85125.280001 446802.82 16.91 28
85125.25 446802.5 17.030001 29
85125.190001 446802.129997 16.68 19
85125.15 446801.809998 16.440001 19
85125.09 446801.440002 16.200001 19
85125.040001 446801.110001 15.809999999999999 19
85125.0 446801.07 15.25 250
85125.0 446800.779999 15.719999999999999 19
85124.85 446800.339996 13.969999999999999 14
85126.940001 446818.459999 21.52 159
85126.91 446818.160004 21.540001 159
85126.879999 446817.82 21.559998999999998 159
85126.84 446817.5 21.540001 159
85126.790001 446817.18 21.299999 151
85126.74 446816.839996 21.02 151
85126.690001 446816.519997 20.780001 126
85126.65 446816.209999 20.530001 121
85126.6 446815.879997 20.259999999999998 121
85126.549999 446815.550003 19.99 121
85126.49 446815.190002 19.75 121
85126.450001 446814.879997 19.530001 107
85126.4 446814.529999 19.27 107
85126.35 446814.220001 19.059998999999998 107
85126.299999 446813.889999 18.74 107
85126.25 446813.580002 18.540001 107
85126.200001 446813.230003 18.280001 107
85126.15 446812.879997 17.99 92
85126.1 446812.550003 17.759999999999998 92
85126.049999 446812.209999 17.49 92
85126.0 446811.879997 17.24 92
85125.959999 446811.57 17.049999 92
85125.9 446811.239998 16.75 83
85125.85 446810.900002 16.459999 73
85125.799999 446810.540001 16.23 73
85125.75 446810.220001 15.92 73
85125.700001 446809.860001 15.7 73
85125.67 446809.559998 15.75 73
85124.309999 446805.010002 0.83 242
85124.440001 446804.860001 3.32 243
85124.57 446804.68 5.88 244
85124.52 446804.629997 5.04 243
85124.690001 446804.529999 8.16 243
85125.01 446804.300003 13.979999999999999 249
85125.09 446804.080002 15.75 27
85124.98 446803.959999 14.08 249
85125.08 446803.769997 15.989999999999998 27
85125.07 446803.480003 16.34 27
85125.049999 446803.169998 16.669999999999998 27
85125.040001 446802.879997 17.02 27
85125.030001 446802.589996 17.290001 30
85124.98 446802.260002 17.059998999999998 19
85124.93 446801.910004 16.809998999999998 19
85124.870001 446801.540001 16.5 19
85124.82 446801.220001 16.24 19
85124.77 446800.849998 15.899999999999999 19
85124.719999 446800.529999 15.7 19
85124.690001 446800.209999 15.739999999999998 19
85124.57 446800.059998 13.969999999999999 14
85126.610001 446818.519997 21.530001 159
85126.58 446818.220001 21.52 159
85126.549999 446817.910004 21.509999999999998 159
85126.52 446817.610001 21.52 159
85126.49 446817.269997 21.59 159
85126.440001 446816.940002 21.440001 151
85126.389999 446816.610001 21.15 126
85126.34 446816.279999 20.91 126
85126.290001 446815.959999 20.620001 126
85126.25 446815.650002 20.43 126
85126.200001 446815.32 20.16 126
85126.15 446814.980003 19.91 126
85126.09 446814.629997 19.639999 107
85126.049999 446814.32 19.4 107
85125.99 446813.959999 19.09 107
85125.950001 446813.660004 18.950001 107
85125.9 446813.330002 18.68 107
85125.85 446813.019997 18.440001 107
85125.799999 446812.660004 18.18 92
85125.75 446812.32 17.91 92
85125.700001 446811.989998 17.669999999999998 92
85125.65 446811.650002 17.419999999999998 92
85125.6 446811.32 17.15 92
85125.549999 446811.0 16.93 73
85125.5 446810.669998 16.65 73
85125.450001 446810.330002 16.43 73
85125.4 446809.970001 16.139999 73
85125.34 446809.650002 15.79 73
85125.299999 446809.290001 15.739999999999998 73
85124.18 446805.019997 4.33 243
85124.360001 446804.879997 7.56 244
85124.41 446804.669998 8.9 243
85124.709999 446804.669998 13.979999999999999 249
85124.68 446804.360001 14.04 249
85124.76 446804.160004 15.709999999999999 27
85124.76 446803.889999 16.18 27
85124.75 446803.57 16.530001 27
85124.74 446803.269997 16.879998999999998 27
85124.73 446802.980003 17.200001 27
85124.709999 446802.68 17.549999 30
85124.68 446802.349998 17.48 30
85124.629999 446802.019997 17.219998999999998 19
85124.58 446801.690002 16.950001 19
85124.52 446801.339996 16.68 19
85124.469999 446800.970001 16.43 19
85124.42 446800.650002 16.15 19
85124.360001 446800.279999 15.78 19
85124.32 446799.970001 15.739999999999998 15
85124.17 446799.5 13.969999999999999 14
85126.17 446818.300003 21.52 159
85126.129999 446817.959999 21.5 159
85126.1 446817.669998 21.52 159
85126.07 446817.349998 21.52 159
85126.040001 446817.050003 21.509999999999998 159
85126.01 446816.720001 21.59 251
85125.959999 446816.389999 21.450001 252
85125.91 446816.059998 21.169999999999998 126
85125.860001 446815.730003 20.889999 126
85125.82 446815.400002 20.68 126
85125.77 446815.089996 20.459999 126
85125.719999 446814.769997 20.18 126
85125.67 446814.43 19.940001 126
85125.620001 446814.080002 19.73 107
85125.57 446813.760002 19.440001 107
85125.52 446813.410004 19.18 107
85125.469999 446813.099998 18.919999999999998 107
85125.42 446812.769997 18.68 107
85125.370001 446812.459999 18.440001 92
85125.32 446812.099998 18.200001 92
85125.27 446811.760002 17.93 92
85125.219999 446811.43 17.68 92
85125.17 446811.089996 17.379998999999998 92
85125.120001 446810.760002 17.15 73
85125.07 446810.440002 16.889999 73
85125.02 446810.110001 16.66 73
85124.969999 446809.760002 16.389999 73
85124.91 446809.400002 16.08 73
85124.860001 446809.080002 15.75 73
85124.82 446808.739998 15.75 73
85123.66 446805.269997 2.1799999999999997 242
85124.1 446805.150002 9.83 243
85124.059999 446805.110001 9.25 243
85124.299999 446804.75 14.01 249
85124.379999 446804.57 15.75 27
85124.370001 446804.25 16.120001 27
85124.360001 446803.970001 16.459999 27
85124.35 446803.669998 16.759999999999998 27
85124.34 446803.400002 17.120001 27
85124.33 446803.080002 17.450001 27
85124.32 446802.779999 17.809998999999998 30
85124.299999 446802.470001 18.009999999999998 30
85124.24 446802.129997 17.73 30
85124.190001 446801.779999 17.440001 26
85124.15 446801.470001 17.24 19
85124.09 446801.120003 16.950001 19
85124.040001 446800.769997 16.68 19
85123.99 446800.410004 16.41 19
85123.940001 446800.080002 16.16 15
85123.870001 446799.699997 15.729999999999999 15
85123.84 446799.400002 15.75 15
85123.690001 446798.940002 13.959999999999999 14
85125.709999 446818.389999 21.52 159
85125.68 446818.050003 21.52 159
85125.65 446817.760002 21.509999999999998 159
85125.610001 446817.419998 21.509999999999998 159
85125.58 446817.110001 21.52 159
85125.549999 446816.800003 21.52 153
85125.51 446816.5 21.509999999999998 153
85125.48 446816.160004 21.540001 153
85125.440001 446815.839996 21.5 155
85125.389999 446815.519997 21.219998999999998 126
85125.35 446815.18 20.99 126
85125.299999 446814.860001 20.73 126
85125.25 446814.540001 20.459999 112
85125.200001 446814.209999 20.219998999999998 112
85125.15 446813.879997 20.0 112
85125.1 446813.519997 19.75 107
85125.049999 446813.209999 19.49 107
85124.99 446812.860001 19.169999999999998 107
85124.950001 446812.550003 18.959999 107
85124.9 446812.220001 18.74 102
85124.85 446811.900002 18.52 92
85124.799999 446811.540001 18.18 92
85124.75 446811.199997 17.950001 92
85124.700001 446810.879997 17.759999999999998 92
85124.639999 446810.529999 17.43 92
85124.59 446810.199997 17.169999999999998 73
85124.549999 446809.889999 16.959999 73
85124.5 446809.550003 16.74 73
85124.450001 446809.209999 16.5 73
85124.389999 446808.849998 16.200001 73
85124.34 446808.529999 15.899999999999999 73
85124.290001 446808.169998 15.709999999999999 65
85123.18 446805.940002 0.82 242
85123.23 446805.690002 2.17 242
85123.52 446805.68 7.04 243
85123.200001 446805.370003 2.25 242
85123.49 446805.349998 7.1499999999999995 244
85123.870001 446805.18 13.94 249
85123.959999 446804.989998 15.739999999999998 50
85123.940001 446804.68 16.030001 27
85123.93 446804.360001 16.41 37
85123.92 446804.080002 16.75 37
85123.91 446803.760002 17.08 37
85123.9 446803.480003 17.419999999999998 37
85123.889999 446803.190002 17.74 37
85123.879999 446802.910004 18.049999 37
85123.870001 446802.599998 18.419999999999998 30
85123.82 446802.25 18.299999 36
85123.780001 446801.919998 18.099999999999998 26
85123.719999 446801.57 17.790001 26
85123.67 446801.230003 17.509999999999998 26
85123.620001 446800.910004 17.259999999999998 26
85123.57 446800.57 16.99 19
85123.52 446800.220001 16.759999999999998 19
85123.459999 446799.849998 16.49 15
85123.42 446799.529999 16.25 15
85123.35 446799.150002 15.85 15
85123.309999 446798.830002 15.709999999999999 15
85123.16 446798.370003 13.959999999999999 14
85125.27 446818.519997 21.530001 185
85125.23 446818.199997 21.52 159
85125.200001 446817.879997 21.530001 159
85125.16 446817.529999 21.509999999999998 159
85125.129999 446817.239998 21.52 159
85125.09 446816.900002 21.509999999999998 153
85125.059999 446816.599998 21.5 153
85125.030001 446816.290001 21.509999999999998 153
85125.0 446815.989998 21.5 153
85124.959999 446815.650002 21.530001 153
85124.93 446815.330002 21.559998999999998 153
85124.879999 446815.0 21.33 134
85124.83 446814.660004 21.059998999999998 126
85124.780001 446814.339996 20.849999999999998 126
85124.74 446814.029999 20.57 112
85124.68 446813.699997 20.299999 112
85124.639999 446813.370003 20.059998999999998 112
85124.58 446813.010002 19.780001 112
85124.530001 446812.699997 19.530001 112
85124.48 446812.339996 19.27 102
85124.440001 446812.029999 19.07 102
85124.389999 446811.699997 18.809998999999998 102
85124.34 446811.389999 18.559998999999998 92
85124.280001 446811.029999 18.290001 92
85124.24 446810.699997 18.09 92
85124.190001 446810.360001 17.82 102
85124.129999 446810.010002 17.549999 84
85124.08 446809.690002 17.32 84
85124.030001 446809.360001 17.009999999999998 73
85123.98 446809.040001 16.77 73
85123.93 446808.690002 16.509999999999998 65
85123.879999 446808.330002 16.25 65
85123.83 446808.010002 16.0 65
85123.77 446807.650002 15.69 65
85123.75 446807.349998 15.75 65
85123.07 446805.82 7.14 243
85123.450001 446805.610001 13.92 249
85123.540001 446805.410004 15.75 50
85123.52 446805.099998 15.93 50
85123.51 446804.82 16.33 50
85123.5 446804.519997 16.620001 37
85123.49 446804.220001 17.0 37
85123.469999 446803.910004 17.32 37
85123.469999 446803.629997 17.66 37
85123.450001 446803.309998 18.009999999999998 37
85123.440001 446803.029999 18.33 37
85123.43 446802.730003 18.66 30
85123.42 446802.449997 18.919999999999998 30
85123.360001 446802.089996 18.669999999999998 36
85123.309999 446801.739998 18.379998999999998 26
85123.26 446801.410004 18.139999 26
85123.209999 446801.059998 17.889999 26
85123.16 446800.720001 17.620001 26
85123.110001 446800.389999 17.360001 26
85123.059999 446800.050003 17.110001 26
85123.0 446799.699997 16.82 26
85122.950001 446799.339996 16.59 15
85122.9 446799.010002 16.290001 15
85122.85 446798.650002 16.040001 15
85122.790001 446798.309998 15.7 15
85122.76 446798.0 15.78 15
85122.639999 446797.839996 13.959999999999999 14
85124.74 446818.279999 21.530001 185
85124.709999 446817.980003 21.530001 185
85124.68 446817.669998 21.52 185
85124.639999 446817.339996 21.52 185
85124.610001 446817.0 21.52 153
85124.58 446816.699997 21.509999999999998 153
85124.540001 446816.360001 21.52 153
85124.51 446816.07 21.530001 153
85124.48 446815.760002 21.52 153
85124.440001 446815.459999 21.52 153
85124.41 446815.120003 21.52 153
85124.379999 446814.790001 21.59 153
85124.34 446814.470001 21.459999 134
85124.280001 446814.129997 21.129998999999998 134
85124.23 446813.809998 20.91 112
85124.18 446813.5 20.639999 112
85124.139999 446813.169998 20.450001 112
85124.09 446812.839996 20.18 112
85124.030001 446812.480003 19.889999 102
85123.99 446812.169998 19.65 102
85123.93 446811.809998 19.389999 102
85123.879999 446811.489998 19.139999 102
85123.84 446811.169998 18.91 102
85123.790001 446810.860001 18.700001 102
85123.74 446810.5 18.41 102
85123.68 446810.160004 18.129998999999998 84
85123.629999 446809.830002 17.91 84
85123.58 446809.480003 17.620001 84
85123.530001 446809.150002 17.41 84
85123.48 446808.830002 17.139999 84
85123.440001 446808.5 16.919999999999998 84
85123.379999 446808.160004 16.66 65
85123.33 446807.800003 16.4 65
85123.280001 446807.480003 16.139999 65
85123.219999 446807.110001 15.729999999999999 65
85123.190001 446806.800003 15.75 65
85123.030001 446806.360001 13.91 253
85123.0 446806.059998 13.92 254
85123.08 446805.839996 15.76 50
85123.059999 446805.519997 15.91 50
85123.049999 446805.230003 16.309998999999998 50
85123.040001 446804.919998 16.629998999999998 50
85123.030001 446804.629997 16.959999 37
85123.02 446804.339996 17.259999999999998 37
85123.01 446804.050003 17.610001 37
85123.0 446803.75 17.959999 37
85122.98 446803.43 18.299999 37
85122.969999 446803.160004 18.620001 37
85122.959999 446802.839996 18.940001 37
85122.950001 446802.559998 19.299999 42
85122.92 446802.239998 19.33 30
85122.870001 446801.919998 19.040001 36
85122.809999 446801.550003 18.75 32
85122.76 446801.209999 18.48 26
85122.709999 446800.870003 18.24 26
85122.66 446800.529999 18.0 26
85122.610001 446800.190002 17.719998999999998 26
85122.559999 446799.860001 17.469998999999998 26
85122.51 446799.519997 17.24 26
85122.450001 446799.160004 16.919999999999998 15
85122.4 446798.800003 16.68 15
85122.35 446798.470001 16.370001 15
85122.290001 446798.110001 16.099999999999998 15
85122.24 446797.779999 15.78 15
85122.200001 446797.449997 15.75 13
85122.040001 446796.989998 13.959999999999999 14
85124.290001 446818.360001 21.530001 185
85124.26 446818.040001 21.530001 185
85124.219999 446817.720001 21.530001 185
85124.190001 446817.43 21.52 185
85124.16 446817.110001 21.52 185
85124.129999 446816.790001 21.52 153
85124.09 446816.449997 21.52 153
85124.059999 446816.150002 21.540001 153
85124.02 446815.809998 21.509999999999998 153
85123.99 446815.510002 21.52 153
85123.959999 446815.199997 21.530001 153
85123.93 446814.900002 21.530001 153
85123.889999 446814.559998 21.52 134
85123.860001 446814.239998 21.559998999999998 134
85123.82 446813.919998 21.509999999999998 134
85123.77 446813.580002 21.18 112
85123.719999 446813.260002 20.940001 112
85123.67 446812.949997 20.719998999999998 112
85123.620001 446812.620003 20.48 112
85123.57 446812.279999 20.190001 112
85123.52 446811.93 19.919999999999998 102
85123.469999 446811.610001 19.65 102
85123.42 446811.260002 19.450001 102
85123.370001 446810.940002 19.200001 102
85123.32 446810.610001 18.93 102
85123.27 446810.300003 18.74 102
85123.219999 446809.940002 18.459999 84
85123.17 446809.599998 18.169999999999998 84
85123.120001 446809.269997 17.919999999999998 84
85123.059999 446808.919998 17.629998999999998 84
85123.02 446808.599998 17.440001 84
85122.969999 446808.279999 17.169999999999998 65
85122.92 446807.940002 16.959999 65
85122.870001 446807.599998 16.700001 65
85122.809999 446807.239998 16.4 65
85122.76 446806.919998 16.15 65
85122.700001 446806.550003 15.78 65
85122.67 446806.239998 15.729999999999999 66
85122.629999 446805.93 15.77 50
85122.629999 446805.650002 16.219998999999998 50
85122.620001 446805.330002 16.549999 50
85122.610001 446805.029999 16.889999 50
85122.59 446804.730003 17.219998999999998 50
85122.58 446804.43 17.57 37
85122.57 446804.139999 17.93 37
85122.559999 446803.849998 18.200001 37
85122.549999 446803.559998 18.57 37
85122.540001 446803.260002 18.9 37
85122.530001 446802.940002 19.24 37
85122.52 446802.660004 19.57 44
85122.5 446802.339996 19.82 30
85122.450001 446802.019997 19.559998999999998 36
85122.4 446801.690002 19.33 32
85122.35 446801.370003 19.110001 32
85122.299999 446801.0 18.790001 26
85122.24 446800.650002 18.530001 26
85122.190001 446800.309998 18.280001 26
85122.139999 446799.959999 18.0 26
85122.09 446799.629997 17.74 20
85122.040001 446799.300003 17.49 15
85121.99 446798.959999 17.24 15
85121.93 446798.610001 16.940001 15
85121.879999 446798.239998 16.68 15
85121.83 446797.910004 16.419999999999998 15
85121.780001 446797.550003 16.200001 13
85121.719999 446797.209999 15.809999999999999 13
85121.68 446796.879997 15.729999999999999 13
85121.52 446796.419998 13.959999999999999 14
85123.93 446818.459999 21.530001 185
85123.889999 446818.129997 21.530001 185
85123.860001 446817.82 21.530001 185
85123.83 446817.5 21.530001 185
85123.790001 446817.18 21.530001 185
85123.76 446816.879997 21.530001 185
85123.73 446816.57 21.540001 153
85123.690001 446816.25 21.530001 153
85123.66 446815.910004 21.52 153
85123.629999 446815.610001 21.530001 153
85123.59 446815.269997 21.52 153
85123.559999 446814.970001 21.540001 153
85123.530001 446814.650002 21.530001 134
85123.49 446814.349998 21.530001 134
85123.459999 446814.019997 21.52 134
85123.43 446813.699997 21.58 134
85123.389999 446813.379997 21.469998999999998 134
85123.34 446813.040001 21.18 112
85123.290001 446812.709999 20.940001 112
85123.24 446812.400002 20.68 112
85123.18 446812.07 20.389999 112
85123.139999 446811.730003 20.169999999999998 102
85123.08 446811.379997 19.91 102
85123.040001 446811.07 19.68 102
85122.98 446810.709999 19.43 102
85122.93 446810.400002 19.129998999999998 102
85122.889999 446810.07 18.93 102
85122.84 446809.739998 18.66 84
85122.780001 446809.389999 18.41 84
85122.73 446809.050003 18.16 84
85122.68 446808.720001 17.9 84
85122.629999 446808.379997 17.629998999999998 84
85122.58 446808.050003 17.389999 65
85122.530001 446807.720001 17.139999 65
85122.48 446807.389999 16.889999 65
85122.43 446807.050003 16.66 65
85122.379999 446806.68 16.41 65
85122.33 446806.370003 16.129998999999998 65
85122.290001 446806.019997 16.08 255
85122.280001 446805.739998 16.469998999999998 50
85122.27 446805.440002 16.77 50
85122.26 446805.160004 17.07 50
85122.25 446804.839996 17.440001 50
85122.24 446804.540001 17.799999 37
85122.219999 446804.239998 18.099999999999998 37
85122.209999 446803.940002 18.450001 37
85122.200001 446803.650002 18.77 37
85122.190001 446803.370003 19.09 44
85122.18 446803.07 19.379998999999998 44
85122.17 446802.779999 19.780001 44
85122.15 446802.459999 20.110001 48
85122.120001 446802.160004 20.110001 36
85122.07 446801.790001 19.82 32
85122.02 446801.470001 19.540001 32
85121.969999 446801.139999 19.32 32
85121.92 446800.82 19.030001 32
85121.870001 446800.449997 18.799999 32
85121.809999 446800.099998 18.509999999999998 26
85121.75 446799.75 18.15 20
85121.700001 446799.400002 17.93 20
85121.65 446799.07 17.700001 20
85121.6 446798.739998 17.440001 15
85121.549999 446798.410004 17.190001 15
85121.5 446798.059998 16.940001 15
85121.440001 446797.68 16.65 15
85121.389999 446797.349998 16.379998999999998 13
85121.34 446796.989998 16.139999 13
85121.280001 446796.650002 15.739999999999998 13
85121.25 446796.330002 15.76 13
85121.129999 446796.169998 13.99 14
85121.09 446795.870003 13.959999999999999 14
85123.629999 446818.25 21.52 185
85123.59 446817.919998 21.530001 185
85123.559999 446817.589996 21.530001 185
85123.52 446817.279999 21.530001 185
85123.49 446816.959999 21.530001 176
85123.459999 446816.639999 21.52 176
85123.43 446816.339996 21.530001 153
85123.389999 446816.029999 21.530001 153
85123.360001 446815.699997 21.540001 153
85123.32 446815.360001 21.530001 153
85123.290001 446815.07 21.52 153
85123.26 446814.730003 21.530001 134
85123.219999 446814.43 21.52 134
85123.190001 446814.120003 21.530001 134
85123.16 446813.82 21.52 134
85123.120001 446813.480003 21.52 134
85123.09 446813.150002 21.549999 134
85123.040001 446812.830002 21.280001 128
85122.99 446812.489998 21.0 128
85122.940001 446812.169998 20.780001 113
85122.889999 446811.849998 20.530001 113
85122.84 446811.519997 20.280001 113
85122.790001 446811.18 20.059998999999998 102
85122.74 446810.830002 19.799999 102
85122.690001 446810.510002 19.540001 102
85122.639999 446810.150002 19.24 102
85122.59 446809.839996 19.009999999999998 93
85122.540001 446809.510002 18.759999999999998 93
85122.49 446809.199997 18.509999999999998 84
85122.440001 446808.839996 18.280001 84
85122.379999 446808.489998 17.959999 84
85122.34 446808.160004 17.780001 84
85122.290001 446807.82 17.5 84
85122.23 446807.480003 17.23 65
85122.190001 446807.169998 16.969998999999998 65
85122.139999 446806.839996 16.790001 65
85122.09 446806.489998 16.5 65
85122.030001 446806.129997 16.259999999999998 66
85122.02 446805.839996 16.559998999999998 50
85122.01 446805.519997 16.91 50
85122.0 446805.239998 17.23 56
85121.99 446804.949997 17.549999 56
85121.98 446804.669998 17.879998999999998 56
85121.969999 446804.349998 18.24 56
85121.950001 446804.050003 18.57 37
85121.940001 446803.75 18.870001 44
85121.93 446803.449997 19.209999 44
85121.92 446803.160004 19.559998999999998 44
85121.91 446802.879997 19.9 44
85121.9 446802.589996 20.209999 44
85121.879999 446802.290001 20.440001 36
85121.82 446801.919998 20.139999 36
85121.780001 446801.599998 19.93 36
85121.719999 446801.239998 19.639999 32
85121.67 446800.910004 19.379998999999998 32
85121.620001 446800.57 19.15 32
85121.57 446800.25 18.879998999999998 32
85121.52 446799.889999 18.58 32
85121.469999 446799.540001 18.349999999999998 20
85121.41 446799.199997 18.059998999999998 20
85121.360001 446798.849998 17.799999 20
85121.309999 446798.510002 17.559998999999998 20
85121.26 446798.18 17.27 20
85121.209999 446797.839996 17.040001 15
85121.15 446797.489998 16.780001 20
85121.1 446797.129997 16.52 13
85121.049999 446796.800003 16.25 13
85120.99 446796.419998 15.91 13
85120.940001 446796.099998 15.7 13
85120.92 446795.779999 15.79 13
85120.790001 446795.610001 13.959999999999999 14
85123.35 446818.32 21.52 185
85123.32 446818.0 21.530001 185
85123.290001 446817.699997 21.530001 185
85123.25 446817.370003 21.530001 185
85123.219999 446817.029999 21.530001 176
85123.190001 446816.730003 21.530001 176
85123.15 446816.410004 21.530001 176
85123.120001 446816.089996 21.530001 153
85123.09 446815.790001 21.530001 176
85123.049999 446815.480003 21.540001 176
85123.02 446815.150002 21.52 153
85122.98 446814.82 21.52 134
85122.950001 446814.519997 21.530001 134
85122.92 446814.18 21.509999999999998 134
85122.879999 446813.879997 21.52 134
85122.85 446813.559998 21.52 134
85122.82 446813.260002 21.52 128
85122.790001 446812.93 21.59 134
85122.74 446812.589996 21.4 128
85122.690001 446812.269997 21.15 113
85122.639999 446811.93 20.879998999999998 113
85122.59 446811.599998 20.620001 113
85122.540001 446811.290001 20.360001 113
85122.49 446810.959999 20.110001 113
85122.440001 446810.620003 19.9 102
85122.389999 446810.260002 19.65 102
85122.34 446809.949997 19.379998999999998 93
85122.290001 446809.589996 19.110001 93
85122.24 446809.279999 18.879998999999998 93
85122.190001 446808.949997 18.65 93
85122.15 446808.629997 18.419999999999998 93
85122.09 446808.269997 18.129998999999998 93
85122.040001 446807.93 17.889999 81
85121.99 446807.589996 17.599999999999998 81
85121.940001 446807.25 17.33 65
85121.889999 446806.919998 17.15 65
85121.84 446806.599998 16.870001 65
85121.790001 446806.260002 16.59 65
85121.76 446805.940002 16.709999 256
85121.75 446805.620003 17.02 56
85121.74 446805.339996 17.360001 56
85121.73 446805.019997 17.74 56
85121.709999 446804.739998 18.030001 56
85121.709999 446804.449997 18.41 56
85121.690001 446804.169998 18.65 56
85121.68 446803.849998 19.0 44
85121.67 446803.550003 19.360001 44
85121.66 446803.25 19.690001 44
85121.639999 446802.949997 20.02 44
85121.629999 446802.660004 20.389999 44
85121.620001 446802.389999 20.690001 48
85121.58 446802.059998 20.540001 36
85121.530001 446801.720001 20.290001 36
85121.48 446801.360001 20.08 36
85121.43 446801.029999 19.790001 32
85121.370001 446800.660004 19.469998999999998 32
85121.32 446800.339996 19.25 32
85121.27 446800.010002 18.99 32
85121.219999 446799.690002 18.75 31
85121.17 446799.32 18.459999 20
85121.110001 446798.970001 18.16 20
85121.059999 446798.629997 17.940001 20
85121.01 446798.279999 17.669999999999998 20
85120.959999 446797.93 17.370001 20
85120.91 446797.610001 17.15 20
85120.860001 446797.269997 16.889999 13
85120.809999 446796.919998 16.639999 13
85120.75 446796.550003 16.349999999999998 13
85120.700001 446796.220001 16.09 13
85120.639999 446795.839996 15.69 13
85120.610001 446795.529999 15.77 13
85120.48 446795.370003 13.959999999999999 14
85123.07 446818.360001 21.52 194
85123.040001 446818.040001 21.530001 194
85123.01 446817.730003 21.540001 194
85122.969999 446817.43 21.540001 194
85122.940001 446817.110001 21.540001 176
85122.91 446816.790001 21.540001 176
85122.870001 446816.449997 21.540001 176
85122.84 446816.160004 21.540001 176
85122.799999 446815.809998 21.530001 176
85122.77 446815.519997 21.540001 176
85122.74 446815.209999 21.509999999999998 160
85122.700001 446814.900002 21.509999999999998 160
85122.67 446814.57 21.52 134
85122.629999 446814.239998 21.530001 134
85122.6 446813.940002 21.52 134
85122.57 446813.599998 21.509999999999998 134
85122.540001 446813.300003 21.52 128
85122.5 446812.989998 21.52 128
85122.469999 446812.690002 21.509999999999998 128
85122.440001 446812.349998 21.509999999999998 128
85122.379999 446812.010002 21.219998999999998 113
85122.33 446811.68 20.99 113
85122.280001 446811.339996 20.700001 113
85122.23 446811.010002 20.469998999999998 113
85122.190001 446810.699997 20.23 113
85122.139999 446810.370003 19.98 113
85122.09 446810.029999 19.74 93
85122.030001 446809.669998 19.43 93
85121.98 446809.360001 19.200001 93
85121.93 446809.0 18.940001 93
85121.879999 446808.68 18.709999 93
85121.83 446808.349998 18.450001 93
85121.780001 446808.029999 18.190001 81
85121.73 446807.68 17.969998999999998 81
85121.68 446807.330002 17.690001 81
85121.629999 446807.0 17.440001 65
85121.58 446806.650002 17.18 65
85121.530001 446806.32 16.93 65
85121.49 446806.010002 16.83 66
85121.48 446805.720001 17.190001 56
85121.469999 446805.410004 17.509999999999998 56
85121.450001 446805.089996 17.870001 56
85121.440001 446804.809998 18.190001 56
85121.43 446804.489998 18.530001 56
85121.42 446804.209999 18.82 56
85121.41 446803.919998 19.190001 44
85121.4 446803.639999 19.49 44
